# .PCD v0.7 - Point Cloud Data file format
VERSION 0.7
FIELDS x y z
SIZE 4 4 4
TYPE F F F
COUNT 1 1 1
WIDTH 1968
HEIGHT 1
VIEWPOINT 0 0 0 1 0 0 0
POINTS 1968
DATA ascii
9.3000002 -16.450001 -6.3559999
9.3000002 -16.4 -6.3309999
9.3000002 -16.35 -6.3270001
9.3000002 -16.299999 -6.2779999
9.3000002 -16.25 -6.2509999
9.3000002 -16.200001 -6.2420001
9.3000002 -16.15 -6.2069998
9.3000002 -16.1 -6.23
9.3000002 -16.049999 -6.1719999
9.3000002 -16 -6.1799998
9.3000002 -15.95 -6.1370001
9.3000002 -15.9 -6.1240001
9.3000002 -15.85 -6.0819998
9.3000002 -15.8 -6.0689998
9.3000002 -15.75 -6.0500002
9.3000002 -15.7 -6.046
9.3500004 -17.65 -6.7589998
9.3500004 -17.6 -6.7410002
9.3500004 -17.549999 -6.7210002
9.3500004 -17.5 -6.7090001
9.3500004 -17.450001 -6.6810002
9.3500004 -17.4 -6.6789999
9.3500004 -17.35 -6.6589999
9.3500004 -17.299999 -6.6659999
9.3500004 -17.25 -6.6490002
9.3500004 -17.200001 -6.6479998
9.3500004 -17.15 -6.6300001
9.3500004 -17.1 -6.618
9.3500004 -17.049999 -6.5780001
9.3500004 -17 -6.5689998
9.3500004 -16.950001 -6.5539999
9.3500004 -16.9 -6.5289998
9.3500004 -16.85 -6.533
9.3500004 -16.799999 -6.5229998
9.3500004 -16.75 -6.4990001
9.3500004 -16.700001 -6.4790001
9.3500004 -16.65 -6.4569998
9.3500004 -16.6 -6.4359999
9.3500004 -16.549999 -6.4159999
9.3500004 -16.5 -6.4250002
9.3500004 -16.450001 -6.4159999
9.3500004 -16.4 -6.3889999
9.3500004 -16.35 -6.3759999
9.3500004 -16.299999 -6.3169999
9.3500004 -16.25 -6.3049998
9.3500004 -16.200001 -6.2880001
9.3500004 -16.15 -6.2519999
9.3500004 -16.1 -6.2589998
9.3500004 -16.049999 -6.237
9.3500004 -16 -6.223
9.3500004 -15.95 -6.211
9.3500004 -15.9 -6.1880002
9.3500004 -15.85 -6.1160002
9.3500004 -15.8 -6.1170001
9.3500004 -15.75 -6.0910001
9.3500004 -15.7 -6.073
9.3500004 -15.65 -6.0479999
9.3500004 -15.6 -6.0190001
9.3999996 -17.65 -6.783
9.3999996 -17.6 -6.7579999
9.3999996 -17.549999 -6.7420001
9.3999996 -17.5 -6.7420001
9.3999996 -17.450001 -6.7420001
9.3999996 -17.4 -6.6849999
9.3999996 -17.35 -6.6890001
9.3999996 -17.299999 -6.71
9.3999996 -17.25 -6.6589999
9.3999996 -17.200001 -6.6700001
9.3999996 -17.15 -6.6669998
9.3999996 -17.1 -6.638
9.3999996 -17.049999 -6.6129999
9.3999996 -17 -6.5970001
9.3999996 -16.950001 -6.6079998
9.3999996 -16.9 -6.573
9.3999996 -16.85 -6.5939999
9.3999996 -16.799999 -6.5609999
9.3999996 -16.75 -6.5310001
9.3999996 -16.700001 -6.5250001
9.3999996 -16.65 -6.507
9.3999996 -16.6 -6.4780002
9.3999996 -16.549999 -6.4759998
9.3999996 -16.5 -6.4640002
9.3999996 -16.450001 -6.434
9.3999996 -16.4 -6.4289999
9.3999996 -16.35 -6.415
9.3999996 -16.299999 -6.3829999
9.3999996 -16.25 -6.3629999
9.3999996 -16.200001 -6.3390002
9.3999996 -16.15 -6.3070002
9.3999996 -16.1 -6.2740002
9.3999996 -16.049999 -6.2680001
9.3999996 -16 -6.25
9.3999996 -15.95 -6.2589998
9.3999996 -15.9 -6.2150002
9.3999996 -15.85 -6.1999998
9.3999996 -15.8 -6.1589999
9.3999996 -15.75 -6.1539998
9.3999996 -15.7 -6.132
9.3999996 -15.65 -6.0939999
9.3999996 -15.6 -6.0689998
9.3999996 -15.55 -6.0599999
9.3999996 -15.5 -6.0320001
9.3999996 -15.45 -6.0180001
9.4499998 -17.65 -6.7820001
9.4499998 -17.6 -6.7600002
9.4499998 -17.549999 -6.7550001
9.4499998 -17.5 -6.7509999
9.4499998 -17.450001 -6.7480001
9.4499998 -17.4 -6.7309999
9.4499998 -17.35 -6.73
9.4499998 -17.299999 -6.7290001
9.4499998 -17.25 -6.6950002
9.4499998 -17.200001 -6.6950002
9.4499998 -17.15 -6.6880002
9.4499998 -17.1 -6.6630001
9.4499998 -17.049999 -6.6550002
9.4499998 -17 -6.6209998
9.4499998 -16.950001 -6.6350002
9.4499998 -16.9 -6.6059999
9.4499998 -16.85 -6.6630001
9.4499998 -16.799999 -6.598
9.4499998 -16.75 -6.5469999
9.4499998 -16.700001 -6.5409999
9.4499998 -16.65 -6.5419998
9.4499998 -16.6 -6.5089998
9.4499998 -16.549999 -6.5050001
9.4499998 -16.5 -6.493
9.4499998 -16.450001 -6.4590001
9.4499998 -16.4 -6.467
9.4499998 -16.35 -6.4289999
9.4499998 -16.299999 -6.428
9.4499998 -16.25 -6.4219999
9.4499998 -16.200001 -6.3829999
9.4499998 -16.15 -6.3649998
9.4499998 -16.1 -6.342
9.4499998 -16.049999 -6.3049998
9.4499998 -16 -6.2969999
9.4499998 -15.95 -6.283
9.4499998 -15.9 -6.2519999
9.4499998 -15.85 -6.2470002
9.4499998 -15.8 -6.211
9.4499998 -15.75 -6.21
9.4499998 -15.7 -6.198
9.4499998 -15.65 -6.1750002
9.4499998 -15.6 -6.145
9.4499998 -15.55 -6.1170001
9.4499998 -15.5 -6.0809999
9.4499998 -15.45 -6.059
9.4499998 -15.4 -6.0450001
9.5 -17.65 -6.783
9.5 -17.6 -6.79
9.5 -17.549999 -6.8010001
9.5 -17.5 -6.802
9.5 -17.450001 -6.763
9.5 -17.4 -6.7680001
9.5 -17.35 -6.7670002
9.5 -17.299999 -6.744
9.5 -17.25 -6.743
9.5 -17.200001 -6.724
9.5 -17.15 -6.6989999
9.5 -17.1 -6.6810002
9.5 -17.049999 -6.6630001
9.5 -17 -6.6810002
9.5 -16.950001 -6.651
9.5 -16.9 -6.6570001
9.5 -16.85 -6.6929998
9.5 -16.799999 -6.6129999
9.5 -16.75 -6.5890002
9.5 -16.700001 -6.5609999
9.5 -16.65 -6.5599999
9.5 -16.6 -6.5370002
9.5 -16.549999 -6.5320001
9.5 -16.5 -6.5219998
9.5 -16.450001 -6.4949999
9.5 -16.4 -6.4990001
9.5 -16.35 -6.4780002
9.5 -16.299999 -6.4580002
9.5 -16.25 -6.4310002
9.5 -16.200001 -6.4260001
9.5 -16.15 -6.3930001
9.5 -16.1 -6.3850002
9.5 -16.049999 -6.3579998
9.5 -16 -6.3439999
9.5 -15.95 -6.3340001
9.5 -15.9 -6.2800002
9.5 -15.85 -6.2709999
9.5 -15.8 -6.2579999
9.5 -15.75 -6.2449999
9.5 -15.7 -6.2309999
9.5 -15.65 -6.1900001
9.5 -15.6 -6.1999998
9.5 -15.55 -6.1680002
9.5 -15.5 -6.151
9.5 -15.45 -6.1300001
9.5 -15.4 -6.0939999
9.5 -15.35 -6.0819998
9.5 -15.3 -6.0440001
9.5 -15.25 -6.0209999
9.5 -15.15 -6.0219998
9.5500002 -17.65 -6.8249998
9.5500002 -17.6 -6.816
9.5500002 -17.549999 -6.8130002
9.5500002 -17.5 -6.8010001
9.5500002 -17.450001 -6.7839999
9.5500002 -17.4 -6.8150001
9.5500002 -17.35 -6.789
9.5500002 -17.299999 -6.776
9.5500002 -17.25 -6.777
9.5500002 -17.200001 -6.7420001
9.5500002 -17.15 -6.7449999
9.5500002 -17.1 -6.73
9.5500002 -17.049999 -6.6989999
9.5500002 -17 -6.7030001
9.5500002 -16.950001 -6.6700001
9.5500002 -16.9 -6.6729999
9.5500002 -16.85 -6.7010002
9.5500002 -16.799999 -6.6360002
9.5500002 -16.75 -6.6110001
9.5500002 -16.700001 -6.6009998
9.5500002 -16.65 -6.5939999
9.5500002 -16.6 -6.5700002
9.5500002 -16.549999 -6.5640001
9.5500002 -16.5 -6.5419998
9.5500002 -16.450001 -6.513
9.5500002 -16.4 -6.5359998
9.5500002 -16.35 -6.5229998
9.5500002 -16.299999 -6.5
9.5500002 -16.25 -6.4650002
9.5500002 -16.200001 -6.461
9.5500002 -16.15 -6.4359999
9.5500002 -16.1 -6.4089999
9.5500002 -16.049999 -6.401
9.5500002 -16 -6.4070001
9.5500002 -15.95 -6.3889999
9.5500002 -15.9 -6.3740001
9.5500002 -15.85 -6.3470001
9.5500002 -15.8 -6.3119998
9.5500002 -15.75 -6.2750001
9.5500002 -15.7 -6.2579999
9.5500002 -15.65 -6.2620001
9.5500002 -15.6 -6.2059999
9.5500002 -15.55 -6.2010002
9.5500002 -15.5 -6.1929998
9.5500002 -15.45 -6.171
9.5500002 -15.4 -6.1399999
9.5500002 -15.35 -6.138
9.5500002 -15.3 -6.1079998
9.5500002 -15.25 -6.0650001
9.5500002 -15.2 -6.052
9.5500002 -15.15 -6.0619998
9.6000004 -17.65 -6.8410001
9.6000004 -17.6 -6.8200002
9.6000004 -17.549999 -6.8210001
9.6000004 -17.5 -6.8000002
9.6000004 -17.450001 -6.8210001
9.6000004 -17.4 -6.8309999
9.6000004 -17.35 -6.803
9.6000004 -17.299999 -6.789
9.6000004 -17.25 -6.7839999
9.6000004 -17.200001 -6.7649999
9.6000004 -17.15 -6.7600002
9.6000004 -17.1 -6.777
9.6000004 -17.049999 -6.7470002
9.6000004 -17 -6.711
9.6000004 -16.950001 -6.6919999
9.6000004 -16.9 -6.677
9.6000004 -16.85 -6.704
9.6000004 -16.799999 -6.665
9.6000004 -16.75 -6.6370001
9.6000004 -16.700001 -6.6389999
9.6000004 -16.65 -6.6329999
9.6000004 -16.6 -6.6090002
9.6000004 -16.549999 -6.5910001
9.6000004 -16.5 -6.572
9.6000004 -16.450001 -6.5630002
9.6000004 -16.4 -6.5560002
9.6000004 -16.35 -6.5450001
9.6000004 -16.299999 -6.5310001
9.6000004 -16.25 -6.5050001
9.6000004 -16.200001 -6.494
9.6000004 -16.15 -6.4679999
9.6000004 -16.1 -6.4349999
9.6000004 -16.049999 -6.4330001
9.6000004 -16 -6.4229999
9.6000004 -15.95 -6.4180002
9.6000004 -15.9 -6.401
9.6000004 -15.85 -6.3920002
9.6000004 -15.8 -6.3590002
9.6000004 -15.75 -6.3639998
9.6000004 -15.7 -6.302
9.6000004 -15.65 -6.3039999
9.6000004 -15.6 -6.2579999
9.6000004 -15.55 -6.2680001
9.6000004 -15.5 -6.2540002
9.6000004 -15.45 -6.1890001
9.6000004 -15.4 -6.1750002
9.6000004 -15.35 -6.1729999
9.6000004 -15.3 -6.1830001
9.6000004 -15.25 -6.1230001
9.6000004 -15.2 -6.1129999
9.6000004 -15.15 -6.1009998
9.6000004 -15.1 -6.0640001
9.6000004 -15.05 -6.0370002
9.6000004 -14.95 -6.0250001
9.6499996 -17.65 -6.855
9.6499996 -17.6 -6.829
9.6499996 -17.549999 -6.8319998
9.6499996 -17.5 -6.8060002
9.6499996 -17.450001 -6.823
9.6499996 -17.4 -6.8439999
9.6499996 -17.35 -6.8080001
9.6499996 -17.299999 -6.8150001
9.6499996 -17.25 -6.809
9.6499996 -17.200001 -6.8039999
9.6499996 -17.15 -6.8039999
9.6499996 -17.1 -6.783
9.6499996 -17.049999 -6.7579999
9.6499996 -17 -6.7410002
9.6499996 -16.950001 -6.71
9.6499996 -16.9 -6.6900001
9.6499996 -16.85 -6.7119999
9.6499996 -16.799999 -6.6900001
9.6499996 -16.75 -6.6760001
9.6499996 -16.700001 -6.671
9.6499996 -16.65 -6.6609998
9.6499996 -16.6 -6.6370001
9.6499996 -16.549999 -6.605
9.6499996 -16.5 -6.612
9.6499996 -16.450001 -6.6069999
9.6499996 -16.4 -6.5869999
9.6499996 -16.35 -6.5700002
9.6499996 -16.299999 -6.5549998
9.6499996 -16.25 -6.526
9.6499996 -16.200001 -6.5250001
9.6499996 -16.15 -6.507
9.6499996 -16.1 -6.4879999
9.6499996 -16.049999 -6.5
9.6499996 -16 -6.467
9.6499996 -15.95 -6.4489999
9.6499996 -15.9 -6.4359999
9.6499996 -15.85 -6.4190001
9.6499996 -15.8 -6.427
9.6499996 -15.75 -6.3779998
9.6499996 -15.7 -6.3639998
9.6499996 -15.65 -6.3439999
9.6499996 -15.6 -6.303
9.6499996 -15.55 -6.2789998
9.6499996 -15.5 -6.2690001
9.6499996 -15.45 -6.2519999
9.6499996 -15.4 -6.2290001
9.6499996 -15.35 -6.211
9.6499996 -15.3 -6.211
9.6499996 -15.25 -6.1760001
9.6499996 -15.2 -6.1550002
9.6499996 -15.15 -6.1259999
9.6499996 -15.1 -6.1230001
9.6499996 -15.05 -6.0799999
9.6499996 -15 -6.053
9.6499996 -14.95 -6.0689998
9.6499996 -14.9 -6.027
9.6999998 -17.65 -6.8759999
9.6999998 -17.6 -6.8499999
9.6999998 -17.549999 -6.8410001
9.6999998 -17.5 -6.816
9.6999998 -17.450001 -6.8629999
9.6999998 -17.4 -6.8439999
9.6999998 -17.35 -6.8330002
9.6999998 -17.299999 -6.8309999
9.6999998 -17.25 -6.8150001
9.6999998 -17.200001 -6.8400002
9.6999998 -17.15 -6.8080001
9.6999998 -17.1 -6.7979999
9.6999998 -17.049999 -6.7789998
9.6999998 -17 -6.77
9.6999998 -16.950001 -6.7930002
9.6999998 -16.9 -6.757
9.6999998 -16.85 -6.7249999
9.6999998 -16.799999 -6.724
9.6999998 -16.75 -6.7119999
9.6999998 -16.700001 -6.697
9.6999998 -16.65 -6.6880002
9.6999998 -16.6 -6.6700001
9.6999998 -16.549999 -6.6469998
9.6999998 -16.5 -6.658
9.6999998 -16.450001 -6.6399999
9.6999998 -16.4 -6.6149998
9.6999998 -16.35 -6.6009998
9.6999998 -16.299999 -6.5900002
9.6999998 -16.25 -6.572
9.6999998 -16.200001 -6.5539999
9.6999998 -16.15 -6.553
9.6999998 -16.1 -6.52
9.6999998 -16.049999 -6.5250001
9.6999998 -16 -6.5089998
9.6999998 -15.95 -6.4809999
9.6999998 -15.9 -6.4899998
9.6999998 -15.85 -6.4510002
9.6999998 -15.8 -6.4460001
9.6999998 -15.75 -6.3920002
9.6999998 -15.7 -6.381
9.6999998 -15.65 -6.402
9.6999998 -15.6 -6.3779998
9.6999998 -15.55 -6.3670001
9.6999998 -15.5 -6.3150001
9.6999998 -15.45 -6.303
9.6999998 -15.4 -6.2839999
9.6999998 -15.35 -6.2620001
9.6999998 -15.3 -6.2579999
9.6999998 -15.25 -6.21
9.6999998 -15.2 -6.1939998
9.6999998 -15.15 -6.1609998
9.6999998 -15.1 -6.1719999
9.6999998 -15.05 -6.131
9.6999998 -15 -6.1090002
9.6999998 -14.95 -6.1230001
9.6999998 -14.9 -6.0770001
9.6999998 -14.85 -6.0560002
9.6999998 -14.8 -6.04
9.6999998 -14.75 -6.0170002
9.75 -17.65 -6.9429998
9.75 -17.6 -6.881
9.75 -17.549999 -6.881
9.75 -17.5 -6.8460002
9.75 -17.450001 -6.8629999
9.75 -17.35 -6.8379998
9.75 -17.299999 -6.835
9.75 -17.25 -6.8189998
9.75 -17.200001 -6.8699999
9.75 -17.15 -6.8070002
9.75 -17.1 -6.803
9.75 -17.049999 -6.783
9.75 -17 -6.783
9.75 -16.950001 -6.8150001
9.75 -16.9 -6.7729998
9.75 -16.85 -6.7490001
9.75 -16.799999 -6.7709999
9.75 -16.75 -6.7620001
9.75 -16.700001 -6.7119999
9.75 -16.65 -6.7129998
9.75 -16.6 -6.6890001
9.75 -16.549999 -6.6760001
9.75 -16.5 -6.6830001
9.75 -16.450001 -6.6719999
9.75 -16.4 -6.6440001
9.75 -16.35 -6.6269999
9.75 -16.299999 -6.6199999
9.75 -16.25 -6.6020002
9.75 -16.200001 -6.592
9.75 -16.15 -6.579
9.75 -16.1 -6.553
9.75 -16.049999 -6.546
9.75 -16 -6.527
9.75 -15.95 -6.5310001
9.75 -15.9 -6.5170002
9.75 -15.85 -6.4840002
9.75 -15.8 -6.4809999
9.75 -15.75 -6.427
9.75 -15.7 -6.4299998
9.75 -15.65 -6.4219999
9.75 -15.6 -6.4039998
9.75 -15.55 -6.4029999
9.75 -15.5 -6.375
9.75 -15.45 -6.3769999
9.75 -15.4 -6.3270001
9.75 -15.35 -6.2859998
9.75 -15.3 -6.3260002
9.75 -15.25 -6.2709999
9.75 -15.2 -6.2639999
9.75 -15.15 -6.2259998
9.75 -15.1 -6.217
9.75 -15.05 -6.191
9.75 -15 -6.1659999
9.75 -14.95 -6.1669998
9.75 -14.9 -6.1389999
9.75 -14.85 -6.119
9.75 -14.8 -6.098
9.75 -14.75 -6.079
9.75 -14.7 -6.046
9.75 -14.65 -6.0190001
9.8000002 -17.65 -6.947
9.8000002 -17.6 -6.9530001
9.8000002 -17.549999 -6.895
9.8000002 -17.5 -6.9330001
9.8000002 -17.450001 -6.8740001
9.8000002 -17.35 -6.8649998
9.8000002 -17.299999 -6.842
9.8000002 -17.25 -6.842
9.8000002 -17.200001 -6.8779998
9.8000002 -17.15 -6.8060002
9.8000002 -17.1 -6.8000002
9.8000002 -17.049999 -6.8169999
9.8000002 -17 -6.7839999
9.8000002 -16.9 -6.7740002
9.8000002 -16.85 -6.7740002
9.8000002 -16.799999 -6.796
9.8000002 -16.75 -6.8140001
9.8000002 -16.700001 -6.7480001
9.8000002 -16.65 -6.737
9.8000002 -16.6 -6.7220001
9.8000002 -16.549999 -6.6890001
9.8000002 -16.5 -6.6960001
9.8000002 -16.450001 -6.711
9.8000002 -16.4 -6.6750002
9.8000002 -16.35 -6.651
9.8000002 -16.299999 -6.6560001
9.8000002 -16.25 -6.6240001
9.8000002 -16.200001 -6.6269999
9.8000002 -16.15 -6.618
9.8000002 -16.1 -6.6069999
9.8000002 -16.049999 -6.599
9.8000002 -16 -6.5570002
9.8000002 -15.95 -6.5570002
9.8000002 -15.9 -6.5549998
9.8000002 -15.85 -6.5279999
9.8000002 -15.8 -6.5229998
9.8000002 -15.75 -6.4790001
9.8000002 -15.7 -6.4749999
9.8000002 -15.65 -6.4619999
9.8000002 -15.6 -6.4520001
9.8000002 -15.55 -6.4200001
9.8000002 -15.5 -6.3979998
9.8000002 -15.45 -6.4070001
9.8000002 -15.4 -6.368
9.8000002 -15.35 -6.3379998
9.8000002 -15.3 -6.335
9.8000002 -15.25 -6.3109999
9.8000002 -15.2 -6.309
9.8000002 -15.15 -6.2839999
9.8000002 -15.1 -6.2610002
9.8000002 -15.05 -6.2399998
9.8000002 -15 -6.2270002
9.8000002 -14.95 -6.2030001
9.8000002 -14.9 -6.171
9.8000002 -14.85 -6.164
9.8000002 -14.8 -6.1479998
9.8000002 -14.75 -6.1389999
9.8000002 -14.7 -6.1090002
9.8000002 -14.65 -6.0700002
9.8000002 -14.6 -6.053
9.8000002 -14.55 -6.0310001
9.8000002 -14.5 -6.026
9.8500004 -17.65 -6.9460001
9.8500004 -17.6 -6.9520001
9.8500004 -17.549999 -6.8940001
9.8500004 -17.5 -6.934
9.8500004 -17.450001 -6.881
9.8500004 -17.35 -6.8730001
9.8500004 -17.299999 -6.8579998
9.8500004 -17.25 -6.8670001
9.8500004 -17.200001 -6.8779998
9.8500004 -17.15 -6.8039999
9.8500004 -17.1 -6.8039999
9.8500004 -17.049999 -6.8439999
9.8500004 -17 -6.8140001
9.8500004 -16.9 -6.7729998
9.8500004 -16.85 -6.8390002
9.8500004 -16.799999 -6.802
9.8500004 -16.75 -6.8210001
9.8500004 -16.700001 -6.7610002
9.8500004 -16.65 -6.7670002
9.8500004 -16.6 -6.7579999
9.8500004 -16.549999 -6.7259998
9.8500004 -16.5 -6.7160001
9.8500004 -16.450001 -6.7389998
9.8500004 -16.4 -6.711
9.8500004 -16.35 -6.7030001
9.8500004 -16.299999 -6.6919999
9.8500004 -16.25 -6.6820002
9.8500004 -16.200001 -6.6599998
9.8500004 -16.15 -6.651
9.8500004 -16.1 -6.6279998
9.8500004 -16.049999 -6.6360002
9.8500004 -16 -6.6009998
9.8500004 -15.95 -6.5910001
9.8500004 -15.9 -6.5700002
9.8500004 -15.85 -6.5510001
9.8500004 -15.8 -6.546
9.8500004 -15.75 -6.5380001
9.8500004 -15.7 -6.5170002
9.8500004 -15.65 -6.4980001
9.8500004 -15.6 -6.4710002
9.8500004 -15.55 -6.4489999
9.8500004 -15.5 -6.4489999
9.8500004 -15.45 -6.4169998
9.8500004 -15.4 -6.4239998
9.8500004 -15.35 -6.4039998
9.8500004 -15.3 -6.375
9.8500004 -15.25 -6.355
9.8500004 -15.2 -6.3660002
9.8500004 -15.15 -6.3280001
9.8500004 -15.1 -6.3169999
9.8500004 -15.05 -6.2950001
9.8500004 -15 -6.276
9.8500004 -14.95 -6.2509999
9.8500004 -14.9 -6.2249999
9.8500004 -14.85 -6.1989999
9.8500004 -14.8 -6.184
9.8500004 -14.75 -6.178
9.8500004 -14.7 -6.1719999
9.8500004 -14.65 -6.1329999
9.8500004 -14.6 -6.1240001
9.8500004 -14.55 -6.0910001
9.8500004 -14.5 -6.066
9.8999996 -17.65 -6.9450002
9.8999996 -17.6 -6.9530001
9.8999996 -17.549999 -6.915
9.8999996 -17.5 -6.9380002
9.8999996 -17.450001 -6.8860002
9.8999996 -17.4 -6.921
9.8999996 -17.35 -6.8800001
9.8999996 -17.299999 -6.8590002
9.8999996 -17.25 -6.869
9.8999996 -17.15 -6.8039999
9.8999996 -17.1 -6.8049998
9.8999996 -17.049999 -6.8610001
9.8999996 -17 -6.8330002
9.8999996 -16.950001 -6.869
9.8999996 -16.85 -6.8660002
9.8999996 -16.799999 -6.8140001
9.8999996 -16.75 -6.8429999
9.8999996 -16.700001 -6.8130002
9.8999996 -16.65 -6.7789998
9.8999996 -16.6 -6.7779999
9.8999996 -16.549999 -6.7449999
9.8999996 -16.5 -6.7389998
9.8999996 -16.450001 -6.744
9.8999996 -16.4 -6.7280002
9.8999996 -16.35 -6.7459998
9.8999996 -16.299999 -6.7259998
9.8999996 -16.25 -6.7189999
9.8999996 -16.200001 -6.6760001
9.8999996 -16.15 -6.6789999
9.8999996 -16.1 -6.6539998
9.8999996 -16.049999 -6.658
9.8999996 -16 -6.6199999
9.8999996 -15.95 -6.6300001
9.8999996 -15.9 -6.598
9.8999996 -15.85 -6.5900002
9.8999996 -15.8 -6.5869999
9.8999996 -15.75 -6.5650001
9.8999996 -15.7 -6.5339999
9.8999996 -15.65 -6.526
9.8999996 -15.6 -6.5170002
9.8999996 -15.55 -6.507
9.8999996 -15.5 -6.4899998
9.8999996 -15.45 -6.4679999
9.8999996 -15.4 -6.447
9.8999996 -15.35 -6.454
9.8999996 -15.3 -6.4330001
9.8999996 -15.25 -6.4120002
9.8999996 -15.2 -6.3899999
9.8999996 -15.15 -6.3800001
9.8999996 -15.1 -6.3520002
9.8999996 -15.05 -6.329
9.8999996 -15 -6.3280001
9.8999996 -14.95 -6.29
9.8999996 -14.9 -6.2859998
9.8999996 -14.85 -6.2280002
9.8999996 -14.8 -6.2210002
9.8999996 -14.75 -6.2030001
9.8999996 -14.7 -6.2010002
9.8999996 -14.65 -6.1929998
9.8999996 -14.6 -6.1760001
9.8999996 -14.55 -6.145
9.8999996 -14.5 -6.1290002
9.9499998 -17.65 -6.9390001
9.9499998 -17.6 -6.9520001
9.9499998 -17.549999 -6.8979998
9.9499998 -17.5 -6.9369998
9.9499998 -17.450001 -6.914
9.9499998 -17.4 -6.948
9.9499998 -17.35 -6.901
9.9499998 -17.299999 -6.9060001
9.9499998 -17.25 -6.8940001
9.9499998 -17.15 -6.829
9.9499998 -17.1 -6.849
9.9499998 -17.049999 -6.8649998
9.9499998 -17 -6.8239999
9.9499998 -16.950001 -6.8590002
9.9499998 -16.85 -6.868
9.9499998 -16.799999 -6.816
9.9499998 -16.75 -6.8470001
9.9499998 -16.700001 -6.829
9.9499998 -16.65 -6.8109999
9.9499998 -16.6 -6.7849998
9.9499998 -16.549999 -6.7779999
9.9499998 -16.5 -6.7589998
9.9499998 -16.450001 -6.743
9.9499998 -16.4 -6.7600002
9.9499998 -16.35 -6.7579999
9.9499998 -16.299999 -6.7399998
9.9499998 -16.25 -6.7280002
9.9499998 -16.200001 -6.691
9.9499998 -16.15 -6.6999998
9.9499998 -16.1 -6.6830001
9.9499998 -16.049999 -6.6849999
9.9499998 -16 -6.658
9.9499998 -15.95 -6.6630001
9.9499998 -15.9 -6.6399999
9.9499998 -15.85 -6.6350002
9.9499998 -15.8 -6.5949998
9.9499998 -15.75 -6.612
9.9499998 -15.7 -6.5869999
9.9499998 -15.65 -6.5510001
9.9499998 -15.6 -6.5640001
9.9499998 -15.55 -6.5349998
9.9499998 -15.5 -6.5209999
9.9499998 -15.45 -6.4970002
9.9499998 -15.4 -6.5029998
9.9499998 -15.35 -6.473
9.9499998 -15.3 -6.4840002
9.9499998 -15.25 -6.4549999
9.9499998 -15.2 -6.4530001
9.9499998 -15.15 -6.4289999
9.9499998 -15.1 -6.388
9.9499998 -15.05 -6.3590002
9.9499998 -15 -6.3670001
9.9499998 -14.95 -6.3439999
9.9499998 -14.9 -6.3379998
9.9499998 -14.85 -6.2880001
9.9499998 -14.8 -6.2620001
9.9499998 -14.75 -6.2610002
9.9499998 -14.7 -6.2399998
9.9499998 -14.65 -6.2389998
9.9499998 -14.6 -6.198
9.9499998 -14.55 -6.1890001
9.9499998 -14.5 -6.1700001
10 -17.65 -6.9380002
10 -17.6 -6.9510002
10 -17.549999 -6.9120002
10 -17.5 -6.9460001
10 -17.450001 -6.927
10 -17.4 -6.9169998
10 -17.35 -6.9130001
10 -17.299999 -6.914
10 -17.25 -6.9070001
10 -17.200001 -6.9260001
10 -17.15 -6.855
10 -17.1 -6.9039998
10 -17.049999 -6.869
10 -17 -6.8189998
10 -16.950001 -6.869
10 -16.85 -6.875
10 -16.799999 -6.822
10 -16.75 -6.8829999
10 -16.700001 -6.823
10 -16.65 -6.8379998
10 -16.6 -6.7969999
10 -16.549999 -6.8070002
10 -16.5 -6.7870002
10 -16.450001 -6.7529998
10 -16.4 -6.7800002
10 -16.299999 -6.7540002
10 -16.25 -6.73
10 -16.200001 -6.7270002
10 -16.15 -6.7280002
10 -16.1 -6.7129998
10 -16.049999 -6.71
10 -16 -6.6929998
10 -15.95 -6.6849999
10 -15.9 -6.6690001
10 -15.85 -6.671
10 -15.8 -6.6149998
10 -15.75 -6.6300001
10 -15.7 -6.6290002
10 -15.65 -6.5949998
10 -15.6 -6.5999999
10 -15.55 -6.5650001
10 -15.5 -6.559
10 -15.45 -6.5300002
10 -15.4 -6.5250001
10 -15.35 -6.527
10 -15.3 -6.5050001
10 -15.25 -6.467
10 -15.2 -6.5
10 -15.15 -6.447
10 -15.1 -6.4349999
10 -15.05 -6.4000001
10 -15 -6.4089999
10 -14.95 -6.382
10 -14.9 -6.3790002
10 -14.85 -6.368
10 -14.8 -6.3210001
10 -14.75 -6.3210001
10 -14.7 -6.2979999
10 -14.65 -6.2740002
10 -14.6 -6.2649999
10 -14.55 -6.2329998
10 -14.5 -6.2189999
10.05 -17.65 -6.9359999
10.05 -17.6 -6.961
10.05 -17.549999 -6.9499998
10.05 -17.5 -6.9450002
10.05 -17.450001 -6.927
10.05 -17.4 -6.9120002
10.05 -17.35 -6.9159999
10.05 -17.299999 -6.914
10.05 -17.25 -6.928
10.05 -17.200001 -6.9120002
10.05 -17.15 -6.8940001
10.05 -17.1 -6.9120002
10.05 -17.049999 -6.9050002
10.05 -16.950001 -6.8709998
10.05 -16.85 -6.8850002
10.05 -16.799999 -6.8899999
10.05 -16.75 -6.9039998
10.05 -16.700001 -6.8189998
10.05 -16.65 -6.8520002
10.05 -16.6 -6.842
10.05 -16.549999 -6.8179998
10.05 -16.5 -6.7989998
10.05 -16.450001 -6.79
10.05 -16.4 -6.803
10.05 -16.299999 -6.7719998
10.05 -16.25 -6.7449999
10.05 -16.200001 -6.7550001
10.05 -16.15 -6.744
10.05 -16.1 -6.7309999
10.05 -16.049999 -6.723
10.05 -16 -6.744
10.05 -15.95 -6.6999998
10.05 -15.9 -6.6810002
10.05 -15.85 -6.6999998
10.05 -15.8 -6.6550002
10.05 -15.75 -6.6430001
10.05 -15.7 -6.6409998
10.05 -15.65 -6.6370001
10.05 -15.6 -6.6269999
10.05 -15.55 -6.5939999
10.05 -15.5 -6.5869999
10.05 -15.45 -6.5890002
10.05 -15.4 -6.5700002
10.05 -15.35 -6.559
10.05 -15.3 -6.5339999
10.05 -15.25 -6.5040002
10.05 -15.2 -6.5159998
10.05 -15.15 -6.4860001
10.05 -15.1 -6.4650002
10.05 -15.05 -6.441
10.05 -15 -6.4549999
10.05 -14.95 -6.3990002
10.05 -14.9 -6.4120002
10.05 -14.85 -6.3800001
10.05 -14.8 -6.3559999
10.05 -14.75 -6.362
10.05 -14.7 -6.3590002
10.05 -14.65 -6.3109999
10.05 -14.6 -6.323
10.05 -14.55 -6.2930002
10.05 -14.5 -6.2800002
10.1 -17.65 -6.9450002
10.1 -17.6 -6.973
10.1 -17.549999 -6.954
10.1 -17.5 -6.9439998
10.1 -17.450001 -6.9419999
10.1 -17.4 -6.9400001
10.1 -17.35 -6.9239998
10.1 -17.299999 -6.9250002
10.1 -17.25 -6.934
10.1 -17.200001 -6.9109998
10.1 -17.15 -6.9089999
10.1 -17.1 -6.9109998
10.1 -17.049999 -6.9120002
10.1 -16.950001 -6.8740001
10.1 -16.85 -6.8870001
10.1 -16.799999 -6.9089999
10.1 -16.75 -6.9060001
10.1 -16.700001 -6.835
10.1 -16.65 -6.8829999
10.1 -16.6 -6.8590002
10.1 -16.549999 -6.8579998
10.1 -16.5 -6.8210001
10.1 -16.450001 -6.8150001
10.1 -16.4 -6.8200002
10.1 -16.299999 -6.7779999
10.1 -16.25 -6.7680001
10.1 -16.200001 -6.776
10.1 -16.15 -6.7600002
10.1 -16.1 -6.7589998
10.1 -16.049999 -6.7379999
10.1 -16 -6.7649999
10.1 -15.95 -6.6989999
10.1 -15.9 -6.6999998
10.1 -15.85 -6.7090001
10.1 -15.8 -6.6900001
10.1 -15.75 -6.6599998
10.1 -15.7 -6.6500001
10.1 -15.65 -6.6469998
10.1 -15.6 -6.6630001
10.1 -15.55 -6.6479998
10.1 -15.5 -6.6199999
10.1 -15.45 -6.6149998
10.1 -15.4 -6.5869999
10.1 -15.35 -6.5700002
10.1 -15.3 -6.5749998
10.1 -15.25 -6.559
10.1 -15.2 -6.5320001
10.1 -15.15 -6.5409999
10.1 -15.1 -6.5029998
10.1 -15.05 -6.4759998
10.1 -15 -6.473
10.1 -14.95 -6.4580002
10.1 -14.9 -6.441
10.1 -14.85 -6.4250002
10.1 -14.8 -6.3930001
10.1 -14.75 -6.401
10.1 -14.7 -6.3850002
10.1 -14.65 -6.3639998
10.1 -14.6 -6.3439999
10.1 -14.55 -6.342
10.1 -14.5 -6.3210001
10.15 -17.65 -6.9569998
10.15 -17.6 -6.974
10.15 -17.549999 -6.9530001
10.15 -17.5 -6.954
10.15 -17.450001 -6.9520001
10.15 -17.4 -6.9530001
10.15 -17.35 -6.9460001
10.15 -17.299999 -6.9390001
10.15 -17.25 -6.9359999
10.15 -17.200001 -6.9099998
10.15 -17.15 -6.9109998
10.15 -17.1 -6.9099998
10.15 -17.049999 -6.9109998
10.15 -16.950001 -6.9000001
10.15 -16.85 -6.9029999
10.15 -16.799999 -6.9089999
10.15 -16.75 -6.9050002
10.15 -16.700001 -6.888
10.15 -16.65 -6.9050002
10.15 -16.6 -6.882
10.15 -16.549999 -6.8769999
10.15 -16.5 -6.8470001
10.15 -16.450001 -6.8299999
10.15 -16.4 -6.8210001
10.15 -16.35 -6.8969998
10.15 -16.299999 -6.777
10.15 -16.25 -6.7919998
10.15 -16.200001 -6.8060002
10.15 -16.15 -6.7779999
10.15 -16.1 -6.7800002
10.15 -16.049999 -6.757
10.15 -16 -6.7639999
10.15 -15.95 -6.664
10.15 -15.9 -6.7360001
10.15 -15.85 -6.7259998
10.15 -15.8 -6.7049999
10.15 -15.75 -6.6890001
10.15 -15.7 -6.6750002
10.15 -15.65 -6.6550002
10.15 -15.6 -6.6830001
10.15 -15.55 -6.6789999
10.15 -15.5 -6.6469998
10.15 -15.45 -6.6279998
10.15 -15.4 -6.6170001
10.15 -15.35 -6.598
10.15 -15.3 -6.6139998
10.15 -15.25 -6.5669999
10.15 -15.2 -6.5370002
10.15 -15.15 -6.5409999
10.15 -15.1 -6.5570002
10.15 -15.05 -6.506
10.15 -15 -6.4980001
10.15 -14.95 -6.4959998
10.15 -14.9 -6.4860001
10.15 -14.85 -6.4640002
10.15 -14.8 -6.4419999
10.15 -14.75 -6.441
10.15 -14.7 -6.4159999
10.15 -14.65 -6.3959999
10.15 -14.6 -6.3940001
10.15 -14.55 -6.375
10.15 -14.5 -6.3559999
10.2 -17.65 -6.9580002
10.2 -17.6 -6.9759998
10.2 -17.549999 -6.96
10.2 -17.5 -6.9559999
10.2 -17.450001 -6.954
10.2 -17.4 -6.954
10.2 -17.35 -6.9530001
10.2 -17.299999 -6.941
10.2 -17.25 -6.9419999
10.2 -17.200001 -6.9109998
10.2 -17.15 -6.9099998
10.2 -17.1 -6.9089999
10.2 -17.049999 -6.9099998
10.2 -16.950001 -6.9089999
10.2 -16.85 -6.908
10.2 -16.799999 -6.908
10.2 -16.75 -6.908
10.2 -16.700001 -6.9070001
10.2 -16.65 -6.908
10.2 -16.6 -6.8920002
10.2 -16.549999 -6.8769999
10.2 -16.5 -6.8899999
10.2 -16.450001 -6.8470001
10.2 -16.35 -6.8720002
10.2 -16.299999 -6.776
10.2 -16.25 -6.8150001
10.2 -16.200001 -6.8249998
10.2 -16.15 -6.7979999
10.2 -16.1 -6.7919998
10.2 -16.049999 -6.7820001
10.2 -16 -6.7639999
10.2 -15.9 -6.7620001
10.2 -15.85 -6.7399998
10.2 -15.8 -6.7350001
10.2 -15.75 -6.7249999
10.2 -15.7 -6.7059999
10.2 -15.65 -6.6849999
10.2 -15.6 -6.6929998
10.2 -15.55 -6.6960001
10.2 -15.5 -6.6659999
10.2 -15.45 -6.6659999
10.2 -15.4 -6.6399999
10.2 -15.35 -6.632
10.2 -15.3 -6.6220002
10.2 -15.25 -6.6020002
10.2 -15.2 -6.598
10.2 -15.15 -6.559
10.2 -15.1 -6.5780001
10.2 -15.05 -6.5640001
10.2 -15 -6.539
10.2 -14.95 -6.5149999
10.2 -14.9 -6.5089998
10.2 -14.85 -6.494
10.2 -14.8 -6.4879999
10.2 -14.75 -6.4759998
10.2 -14.7 -6.4559999
10.2 -14.65 -6.4380002
10.2 -14.6 -6.428
10.2 -14.55 -6.3930001
10.2 -14.5 -6.3920002
10.25 -17.65 -6.9629998
10.25 -17.6 -6.9759998
10.25 -17.549999 -6.9710002
10.25 -17.5 -6.974
10.25 -17.450001 -6.9580002
10.25 -17.4 -6.954
10.25 -17.35 -6.9530001
10.25 -17.299999 -6.9429998
10.25 -17.25 -6.9520001
10.25 -17.200001 -6.9099998
10.25 -17.15 -6.9089999
10.25 -17.1 -6.908
10.25 -17.049999 -6.9089999
10.25 -17 -6.9070001
10.25 -16.950001 -6.9089999
10.25 -16.9 -6.9239998
10.25 -16.85 -6.908
10.25 -16.799999 -6.9070001
10.25 -16.75 -6.908
10.25 -16.700001 -6.9060001
10.25 -16.65 -6.9070001
10.25 -16.6 -6.9039998
10.25 -16.549999 -6.882
10.25 -16.450001 -6.8559999
10.25 -16.35 -6.8610001
10.25 -16.299999 -6.7750001
10.25 -16.25 -6.8260002
10.25 -16.200001 -6.8379998
10.25 -16.15 -6.8189998
10.25 -16.1 -6.8049998
10.25 -16.049999 -6.8179998
10.25 -16 -6.7709999
10.25 -15.9 -6.7750001
10.25 -15.85 -6.7529998
10.25 -15.8 -6.7600002
10.25 -15.75 -6.7389998
10.25 -15.7 -6.73
10.25 -15.65 -6.7199998
10.25 -15.6 -6.7059999
10.25 -15.55 -6.7140002
10.25 -15.5 -6.6939998
10.25 -15.45 -6.6919999
10.25 -15.4 -6.6869998
10.25 -15.35 -6.6479998
10.25 -15.3 -6.6479998
10.25 -15.25 -6.6370001
10.25 -15.2 -6.6220002
10.25 -15.15 -6.6079998
10.25 -15.1 -6.6030002
10.25 -15.05 -6.5869999
10.25 -15 -6.5510001
10.25 -14.95 -6.579
10.25 -14.9 -6.5510001
10.25 -14.85 -6.5170002
10.25 -14.8 -6.5029998
10.25 -14.75 -6.5009999
10.25 -14.7 -6.4990001
10.25 -14.65 -6.487
10.25 -14.6 -6.4640002
10.25 -14.55 -6.4510002
10.25 -14.5 -6.421
10.3 -17.65 -6.9710002
10.3 -17.6 -6.974
10.3 -17.549999 -6.9809999
10.3 -17.5 -6.9809999
10.3 -17.450001 -6.9619999
10.3 -17.4 -6.9549999
10.3 -17.35 -6.9530001
10.3 -17.299999 -6.947
10.3 -17.25 -6.954
10.3 -17.200001 -6.9219999
10.3 -17.15 -6.908
10.3 -17.1 -6.9070001
10.3 -17.049999 -6.9099998
10.3 -17 -6.9070001
10.3 -16.950001 -6.9089999
10.3 -16.9 -6.9130001
10.3 -16.85 -6.9070001
10.3 -16.799999 -6.9060001
10.3 -16.75 -6.9070001
10.3 -16.700001 -6.9060001
10.3 -16.65 -6.8969998
10.3 -16.549999 -6.8979998
10.3 -16.450001 -6.8590002
10.3 -16.35 -6.8759999
10.3 -16.299999 -6.8410001
10.3 -16.25 -6.835
10.3 -16.200001 -6.8439999
10.3 -16.15 -6.8340001
10.3 -16.1 -6.8140001
10.3 -16.049999 -6.8400002
10.3 -16 -6.7950001
10.3 -15.9 -6.8000002
10.3 -15.85 -6.776
10.3 -15.8 -6.7839999
10.3 -15.75 -6.7709999
10.3 -15.7 -6.744
10.3 -15.65 -6.7470002
10.3 -15.6 -6.7069998
10.3 -15.55 -6.7270002
10.3 -15.5 -6.73
10.3 -15.45 -6.7049999
10.3 -15.4 -6.6950002
10.3 -15.35 -6.6729999
10.3 -15.3 -6.6589999
10.3 -15.25 -6.6430001
10.3 -15.2 -6.6539998
10.3 -15.15 -6.6440001
10.3 -15.1 -6.6339998
10.3 -15.05 -6.6240001
10.3 -15 -6.6129999
10.3 -14.95 -6.5840001
10.3 -14.9 -6.5799999
10.3 -14.85 -6.5500002
10.3 -14.8 -6.5609999
10.3 -14.75 -6.5339999
10.3 -14.7 -6.527
10.3 -14.65 -6.5009999
10.3 -14.6 -6.4829998
10.3 -14.55 -6.4780002
10.3 -14.5 -6.448
10.35 -17.65 -6.9749999
10.35 -17.6 -6.9770002
10.35 -17.549999 -7.0159998
10.35 -17.5 -6.9879999
10.35 -17.450001 -6.967
10.35 -17.4 -6.9569998
10.35 -17.35 -6.9510002
10.35 -17.299999 -6.9510002
10.35 -17.25 -6.9530001
10.35 -17.200001 -6.928
10.35 -17.15 -6.9099998
10.35 -17.1 -6.9089999
10.35 -17.049999 -6.9099998
10.35 -17 -6.9060001
10.35 -16.950001 -6.9089999
10.35 -16.9 -6.9159999
10.35 -16.85 -6.9159999
10.35 -16.799999 -6.9060001
10.35 -16.75 -6.9070001
10.35 -16.700001 -6.9050002
10.35 -16.65 -6.901
10.35 -16.549999 -6.9050002
10.35 -16.450001 -6.8699999
10.35 -16.35 -6.8870001
10.35 -16.299999 -6.9050002
10.35 -16.25 -6.8449998
10.35 -16.200001 -6.8429999
10.35 -16.15 -6.848
10.35 -16.1 -6.8249998
10.35 -16.049999 -6.8470001
10.35 -16 -6.8119998
10.35 -15.9 -6.8239999
10.35 -15.85 -6.802
10.35 -15.8 -6.8109999
10.35 -15.75 -6.8010001
10.35 -15.7 -6.7589998
10.35 -15.65 -6.7620001
10.35 -15.6 -6.7150002
10.35 -15.55 -6.7399998
10.35 -15.5 -6.744
10.35 -15.45 -6.7329998
10.35 -15.4 -6.7090001
10.35 -15.35 -6.71
10.35 -15.3 -6.6719999
10.35 -15.25 -6.684
10.35 -15.2 -6.6659999
10.35 -15.15 -6.664
10.35 -15.1 -6.645
10.35 -15.05 -6.6339998
10.35 -15 -6.6170001
10.35 -14.95 -6.6269999
10.35 -14.9 -6.6129999
10.35 -14.85 -6.599
10.35 -14.8 -6.5780001
10.35 -14.75 -6.5780001
10.35 -14.7 -6.546
10.35 -14.65 -6.5370002
10.35 -14.6 -6.5159998
10.35 -14.55 -6.4889998
10.35 -14.5 -6.4790001
10.4 -17.65 -6.9860001
10.4 -17.6 -6.9780002
10.4 -17.549999 -7.0229998
10.4 -17.5 -6.9970002
10.4 -17.450001 -6.9689999
10.4 -17.4 -6.9559999
10.4 -17.35 -6.9510002
10.4 -17.299999 -6.96
10.4 -17.25 -6.9520001
10.4 -17.200001 -6.927
10.4 -17.15 -6.915
10.4 -17.1 -6.9089999
10.4 -17.049999 -6.9099998
10.4 -17 -6.9200001
10.4 -16.950001 -6.9070001
10.4 -16.9 -6.9349999
10.4 -16.85 -6.9299998
10.4 -16.799999 -6.9109998
10.4 -16.75 -6.9060001
10.4 -16.700001 -6.9039998
10.4 -16.65 -6.9060001
10.4 -16.6 -6.9260001
10.4 -16.549999 -6.9070001
10.4 -16.5 -6.96
10.4 -16.450001 -6.8850002
10.4 -16.35 -6.8940001
10.4 -16.299999 -6.9039998
10.4 -16.25 -6.8649998
10.4 -16.200001 -6.8759999
10.4 -16.15 -6.8639998
10.4 -16.1 -6.7789998
10.4 -16.049999 -6.8540001
10.4 -16 -6.8249998
10.4 -15.95 -6.8439999
10.4 -15.9 -6.8330002
10.4 -15.85 -6.8309999
10.4 -15.8 -6.8189998
10.4 -15.75 -6.8119998
10.4 -15.7 -6.7969999
10.4 -15.65 -6.7930002
10.4 -15.6 -6.7579999
10.4 -15.55 -6.7740002
10.4 -15.5 -6.7649999
10.4 -15.45 -6.7600002
10.4 -15.4 -6.7399998
10.4 -15.35 -6.723
10.4 -15.3 -6.6880002
10.4 -15.25 -6.711
10.4 -15.2 -6.7090001
10.4 -15.15 -6.684
10.4 -15.1 -6.6659999
10.4 -15.05 -6.677
10.4 -15 -6.6220002
10.4 -14.95 -6.6469998
10.4 -14.9 -6.6139998
10.4 -14.85 -6.6160002
10.4 -14.8 -6.599
10.4 -14.75 -6.6059999
10.4 -14.7 -6.5619998
10.4 -14.65 -6.579
10.4 -14.6 -6.553
10.4 -14.55 -6.552
10.4 -14.5 -6.5170002
10.45 -17.65 -6.9889998
10.45 -17.6 -6.9840002
10.45 -17.549999 -7.0219998
10.45 -17.5 -6.9990001
10.45 -17.450001 -6.987
10.45 -17.4 -6.9629998
10.45 -17.35 -6.9530001
10.45 -17.299999 -6.9640002
10.45 -17.25 -6.9510002
10.45 -17.200001 -6.9390001
10.45 -17.15 -6.9299998
10.45 -17.1 -6.9190001
10.45 -17.049999 -6.9109998
10.45 -17 -6.9460001
10.45 -16.950001 -6.9060001
10.45 -16.9 -6.9229999
10.45 -16.85 -6.947
10.45 -16.799999 -6.928
10.45 -16.75 -6.9050002
10.45 -16.700001 -6.9050002
10.45 -16.65 -6.9190001
10.45 -16.6 -6.9239998
10.45 -16.549999 -6.908
10.45 -16.5 -6.9369998
10.45 -16.450001 -6.8969998
10.45 -16.4 -6.9190001
10.45 -16.35 -6.8990002
10.45 -16.299999 -6.9029999
10.45 -16.25 -6.8889999
10.45 -16.200001 -6.9050002
10.45 -16.15 -6.882
10.45 -16.049999 -6.8590002
10.45 -16 -6.8439999
10.45 -15.95 -6.8569999
10.45 -15.9 -6.8470001
10.45 -15.85 -6.8569999
10.45 -15.8 -6.8319998
10.45 -15.75 -6.8299999
10.45 -15.7 -6.8260002
10.45 -15.65 -6.8239999
10.45 -15.6 -6.789
10.45 -15.55 -6.7810001
10.45 -15.5 -6.777
10.45 -15.45 -6.7880001
10.45 -15.4 -6.7600002
10.45 -15.35 -6.7389998
10.45 -15.3 -6.717
10.45 -15.25 -6.7350001
10.45 -15.2 -6.7290001
10.45 -15.15 -6.704
10.45 -15.1 -6.678
10.45 -15.05 -6.6890001
10.45 -15 -6.6609998
10.45 -14.95 -6.678
10.45 -14.9 -6.6820002
10.45 -14.85 -6.6479998
10.45 -14.8 -6.6500001
10.45 -14.75 -6.6139998
10.45 -14.7 -6.5939999
10.45 -14.65 -6.6079998
10.45 -14.6 -6.6090002
10.45 -14.55 -6.5689998
10.45 -14.5 -6.5770001
10.5 -17.65 -6.9980001
10.5 -17.6 -6.993
10.5 -17.549999 -7.0139999
10.5 -17.5 -6.9990001
10.5 -17.450001 -6.994
10.5 -17.4 -6.9660001
10.5 -17.35 -6.9590001
10.5 -17.299999 -6.973
10.5 -17.25 -6.9520001
10.5 -17.200001 -6.9520001
10.5 -17.15 -6.9450002
10.5 -17.1 -6.9320002
10.5 -17.049999 -6.9159999
10.5 -17 -6.9549999
10.5 -16.950001 -6.9050002
10.5 -16.9 -6.9310002
10.5 -16.85 -6.954
10.5 -16.799999 -6.9369998
10.5 -16.75 -6.9039998
10.5 -16.700001 -6.9239998
10.5 -16.65 -6.934
10.5 -16.6 -6.9229999
10.5 -16.549999 -6.9089999
10.5 -16.5 -6.9419999
10.5 -16.450001 -6.9109998
10.5 -16.4 -6.9109998
10.5 -16.35 -6.8990002
10.5 -16.299999 -6.902
10.5 -16.25 -6.8969998
10.5 -16.200001 -6.902
10.5 -16.15 -6.8909998
10.5 -16.049999 -6.862
10.5 -16 -6.8660002
10.5 -15.95 -6.8720002
10.5 -15.9 -6.8579998
10.5 -15.85 -6.8670001
10.5 -15.75 -6.8400002
10.5 -15.7 -6.868
10.5 -15.65 -6.836
10.5 -15.6 -6.8049998
10.5 -15.55 -6.8060002
10.5 -15.5 -6.7919998
10.5 -15.45 -6.8010001
10.5 -15.4 -6.7750001
10.5 -15.35 -6.783
10.5 -15.3 -6.7389998
10.5 -15.25 -6.7579999
10.5 -15.2 -6.7529998
10.5 -15.15 -6.73
10.5 -15.1 -6.6900001
10.5 -15.05 -6.7280002
10.5 -15 -6.678
10.5 -14.95 -6.6900001
10.5 -14.9 -6.7059999
10.5 -14.85 -6.6560001
10.5 -14.8 -6.6500001
10.5 -14.75 -6.6430001
10.5 -14.7 -6.6059999
10.5 -14.65 -6.6100001
10.5 -14.6 -6.6199999
10.5 -14.55 -6.5949998
10.5 -14.5 -6.605
10.55 -17.65 -7.006
10.55 -17.6 -6.9990001
10.55 -17.549999 -7.0029998
10.55 -17.5 -7
10.55 -17.450001 -6.993
10.55 -17.4 -6.967
10.55 -17.35 -6.9710002
10.55 -17.299999 -6.98
10.55 -17.25 -6.954
10.55 -17.200001 -6.9580002
10.55 -17.15 -6.9549999
10.55 -17.1 -6.9439998
10.55 -17.049999 -6.9380002
10.55 -17 -6.9559999
10.55 -16.950001 -6.921
10.55 -16.9 -6.9520001
10.55 -16.85 -6.9530001
10.55 -16.799999 -6.947
10.55 -16.75 -6.9029999
10.55 -16.700001 -6.941
10.55 -16.65 -6.9359999
10.55 -16.6 -6.9219999
10.55 -16.549999 -6.9190001
10.55 -16.5 -6.941
10.55 -16.450001 -6.9229999
10.55 -16.4 -6.9099998
10.55 -16.35 -6.902
10.55 -16.299999 -6.9029999
10.55 -16.25 -6.8959999
10.55 -16.200001 -6.901
10.55 -16.15 -6.8969998
10.55 -16.049999 -6.869
10.55 -16 -6.8979998
10.55 -15.95 -6.8759999
10.55 -15.9 -6.8189998
10.55 -15.85 -6.8740001
10.55 -15.75 -6.8460002
10.55 -15.7 -6.9050002
10.55 -15.65 -6.8600001
10.55 -15.6 -6.8559999
10.55 -15.55 -6.8280001
10.55 -15.5 -6.8260002
10.55 -15.45 -6.8109999
10.55 -15.4 -6.7909999
10.55 -15.35 -6.816
10.55 -15.3 -6.7659998
10.55 -15.25 -6.7789998
10.55 -15.2 -6.7680001
10.55 -15.15 -6.7529998
10.55 -15.1 -6.7150002
10.55 -15.05 -6.7579999
10.55 -15 -6.756
10.55 -14.95 -6.7290001
10.55 -14.9 -6.7249999
10.55 -14.85 -6.6880002
10.55 -14.8 -6.6680002
10.55 -14.75 -6.6820002
10.55 -14.7 -6.6880002
10.55 -14.65 -6.6859999
10.55 -14.6 -6.6550002
10.55 -14.55 -6.6399999
10.55 -14.5 -6.6139998
10.6 -17.65 -7.007
10.6 -17.6 -7.0009999
10.6 -17.549999 -6.9980001
10.6 -17.5 -7.0009999
10.6 -17.450001 -6.9990001
10.6 -17.4 -6.973
10.6 -17.35 -6.9879999
10.6 -17.299999 -6.9780002
10.6 -17.25 -6.9559999
10.6 -17.200001 -6.9590001
10.6 -17.15 -6.9629998
10.6 -17.1 -6.9650002
10.6 -17.049999 -6.9580002
10.6 -17 -6.9569998
10.6 -16.950001 -6.9460001
10.6 -16.9 -6.9510002
10.6 -16.85 -6.9520001
10.6 -16.799999 -6.9549999
10.6 -16.75 -6.9099998
10.6 -16.700001 -6.9429998
10.6 -16.65 -6.9359999
10.6 -16.6 -6.921
10.6 -16.549999 -6.9369998
10.6 -16.5 -6.9429998
10.6 -16.450001 -6.9320002
10.6 -16.4 -6.9229999
10.6 -16.35 -6.9050002
10.6 -16.299999 -6.9060001
10.6 -16.25 -6.895
10.6 -16.200001 -6.9000001
10.6 -16.15 -6.8990002
10.6 -16.049999 -6.8730001
10.6 -16 -6.8979998
10.6 -15.95 -6.8930001
10.6 -15.85 -6.8779998
10.6 -15.75 -6.8569999
10.6 -15.7 -6.9120002
10.6 -15.65 -6.8610001
10.6 -15.6 -6.9159999
10.6 -15.55 -6.8369999
10.6 -15.5 -6.8520002
10.6 -15.45 -6.8460002
10.6 -15.4 -6.7979999
10.6 -15.35 -6.8270001
10.6 -15.3 -6.823
10.6 -15.25 -6.8270001
10.6 -15.2 -6.8140001
10.6 -15.15 -6.7649999
10.6 -15.1 -6.7680001
10.6 -15.05 -6.7649999
10.6 -15 -6.757
10.6 -14.95 -6.7350001
10.6 -14.9 -6.7329998
10.6 -14.85 -6.7309999
10.6 -14.8 -6.7160001
10.6 -14.75 -6.6869998
10.6 -14.7 -6.6950002
10.6 -14.65 -6.6929998
10.6 -14.6 -6.6589999
10.6 -14.55 -6.651
10.6 -14.5 -6.6399999
10.65 -17.65 -7.006
10.65 -17.6 -7
10.65 -17.549999 -7.0029998
10.65 -17.5 -7.0019999
10.65 -17.450001 -7.0019999
10.65 -17.4 -6.9860001
10.65 -17.35 -7.0019999
10.65 -17.299999 -6.9780002
10.65 -17.25 -6.961
10.65 -17.200001 -6.9619999
10.65 -17.15 -6.9710002
10.65 -17.1 -6.9780002
10.65 -17.049999 -6.973
10.65 -17 -6.9569998
10.65 -16.950001 -6.9549999
10.65 -16.9 -6.948
10.65 -16.85 -6.9510002
10.65 -16.799999 -6.9530001
10.65 -16.75 -6.928
10.65 -16.700001 -6.9439998
10.65 -16.65 -6.9369998
10.65 -16.6 -6.9349999
10.65 -16.549999 -6.9460001
10.65 -16.5 -6.9460001
10.65 -16.450001 -6.9390001
10.65 -16.4 -6.941
10.65 -16.35 -6.9099998
10.65 -16.299999 -6.9099998
10.65 -16.25 -6.8990002
10.65 -16.200001 -6.8990002
10.65 -16.15 -6.9000001
10.65 -16.1 -6.9239998
10.65 -16.049999 -6.8870001
10.65 -16 -6.9120002
10.65 -15.95 -6.9099998
10.65 -15.9 -6.9169998
10.65 -15.85 -6.8870001
10.65 -15.75 -6.8720002
10.65 -15.7 -6.921
10.65 -15.65 -6.868
10.65 -15.6 -6.9190001
10.65 -15.55 -6.8470001
10.65 -15.5 -6.868
10.65 -15.45 -6.869
10.65 -15.4 -6.8309999
10.65 -15.35 -6.8449998
10.65 -15.3 -6.8299999
10.65 -15.25 -6.8530002
10.65 -15.2 -6.8130002
10.65 -15.15 -6.7979999
10.65 -15.1 -6.7750001
10.65 -15.05 -6.7870002
10.65 -15 -6.7589998
10.65 -14.95 -6.7459998
10.65 -14.9 -6.7490001
10.65 -14.85 -6.737
10.65 -14.8 -6.7220001
10.65 -14.75 -6.724
10.65 -14.7 -6.6939998
10.65 -14.65 -6.6960001
10.65 -14.6 -6.717
10.65 -14.55 -6.6750002
10.65 -14.5 -6.678
10.7 -17.65 -7.0050001
10.7 -17.6 -6.9990001
10.7 -17.549999 -7.0110002
10.7 -17.5 -7.007
10.7 -17.450001 -7.0079999
10.7 -17.4 -6.9910002
10.7 -17.35 -7.006
10.7 -17.299999 -6.9819999
10.7 -17.25 -6.9650002
10.7 -17.200001 -6.967
10.7 -17.15 -6.9770002
10.7 -17.1 -6.98
10.7 -17.049999 -6.9840002
10.7 -17 -6.9569998
10.7 -16.950001 -6.9629998
10.7 -16.9 -6.9499998
10.7 -16.85 -6.9510002
10.7 -16.799999 -6.9499998
10.7 -16.75 -6.9380002
10.7 -16.700001 -6.9530001
10.7 -16.65 -6.941
10.7 -16.6 -6.9520001
10.7 -16.549999 -6.9450002
10.7 -16.5 -6.948
10.7 -16.450001 -6.9429998
10.7 -16.4 -6.947
10.7 -16.35 -6.9310002
10.7 -16.299999 -6.9190001
10.7 -16.25 -6.9060001
10.7 -16.200001 -6.8979998
10.7 -16.15 -6.9060001
10.7 -16.1 -6.927
10.7 -16.049999 -6.9089999
10.7 -16 -6.9749999
10.7 -15.95 -6.9120002
10.7 -15.9 -6.9169998
10.7 -15.85 -6.8930001
10.7 -15.75 -6.8790002
10.7 -15.65 -6.8839998
10.7 -15.55 -6.8579998
10.7 -15.5 -6.868
10.7 -15.45 -6.8730001
10.7 -15.4 -6.8070002
10.7 -15.35 -6.8439999
10.7 -15.3 -6.8299999
10.7 -15.25 -6.8559999
10.7 -15.2 -6.8119998
10.7 -15.15 -6.803
10.7 -15.1 -6.7930002
10.7 -15.05 -6.816
10.7 -15 -6.789
10.7 -14.95 -6.7880001
10.7 -14.9 -6.776
10.7 -14.85 -6.7360001
10.7 -14.8 -6.7319999
10.7 -14.75 -6.724
10.7 -14.7 -6.7210002
10.7 -14.65 -6.7290001
10.7 -14.6 -6.717
10.7 -14.55 -6.711
10.7 -14.5 -6.6890001
10.75 -17.65 -7.0120001
10.75 -17.6 -6.9949999
10.75 -17.549999 -7.013
10.75 -17.5 -7.0100002
10.75 -17.450001 -7.013
10.75 -17.4 -6.9899998
10.75 -17.35 -7.006
10.75 -17.299999 -6.9980001
10.75 -17.25 -6.967
10.75 -17.200001 -6.9699998
10.75 -17.15 -6.9920001
10.75 -17.1 -6.9780002
10.75 -17.049999 -6.987
10.75 -17 -6.9619999
10.75 -16.950001 -6.973
10.75 -16.9 -6.9530001
10.75 -16.85 -6.9530001
10.75 -16.799999 -6.9510002
10.75 -16.75 -6.9400001
10.75 -16.700001 -6.96
10.75 -16.65 -6.9460001
10.75 -16.6 -6.9530001
10.75 -16.549999 -6.9439998
10.75 -16.5 -6.9549999
10.75 -16.450001 -6.948
10.75 -16.4 -6.954
10.75 -16.35 -6.9489999
10.75 -16.299999 -6.9229999
10.75 -16.25 -6.9130001
10.75 -16.200001 -6.8969998
10.75 -16.15 -6.9200001
10.75 -16.1 -6.928
10.75 -16.049999 -6.9180002
10.75 -16 -6.9759998
10.75 -15.95 -6.9219999
10.75 -15.9 -6.9169998
10.75 -15.85 -6.908
10.75 -15.75 -6.8800001
10.75 -15.65 -6.8870001
10.75 -15.55 -6.8600001
10.75 -15.5 -6.8829999
10.75 -15.45 -6.8769999
10.75 -15.35 -6.8449998
10.75 -15.3 -6.8439999
10.75 -15.25 -6.8629999
10.75 -15.2 -6.8109999
10.75 -15.15 -6.8200002
10.75 -15.1 -6.8530002
10.75 -15.05 -6.8429999
10.75 -15 -6.8150001
10.75 -14.95 -6.8039999
10.75 -14.9 -6.796
10.75 -14.85 -6.777
10.75 -14.8 -6.7550001
10.75 -14.75 -6.7410002
10.75 -14.7 -6.7210002
10.75 -14.65 -6.7290001
10.75 -14.6 -6.7329998
10.75 -14.55 -6.7129998
10.75 -14.5 -6.7340002
10.8 -17.65 -7.0190001
10.8 -17.6 -6.9899998
10.8 -17.549999 -7.0120001
10.8 -17.5 -7.0089998
10.8 -17.450001 -7.0120001
10.8 -17.4 -6.9889998
10.8 -17.35 -7.0050001
10.8 -17.299999 -7.0110002
10.8 -17.25 -6.9749999
10.8 -17.200001 -6.9780002
10.8 -17.15 -7.007
10.8 -17.1 -6.9770002
10.8 -17.049999 -6.9910002
10.8 -17 -6.9679999
10.8 -16.950001 -6.973
10.8 -16.9 -6.9559999
10.8 -16.85 -6.9549999
10.8 -16.799999 -6.9549999
10.8 -16.75 -6.948
10.8 -16.700001 -6.9569998
10.8 -16.65 -6.954
10.8 -16.6 -6.954
10.8 -16.549999 -6.9419999
10.8 -16.5 -6.9580002
10.8 -16.450001 -6.9520001
10.8 -16.4 -6.96
10.8 -16.35 -6.9520001
10.8 -16.299999 -6.9320002
10.8 -16.25 -6.9180002
10.8 -16.200001 -6.9070001
10.8 -16.15 -6.9250002
10.8 -16.1 -6.9310002
10.8 -16.049999 -6.9250002
10.8 -16 -6.9299998
10.8 -15.95 -6.9330001
10.8 -15.9 -6.9159999
10.8 -15.85 -6.9229999
10.8 -15.8 -6.9310002
10.8 -15.75 -6.8979998
10.8 -15.65 -6.901
10.8 -15.55 -6.862
10.8 -15.5 -6.9250002
10.8 -15.45 -6.8829999
10.8 -15.35 -6.855
10.8 -15.3 -6.8940001
10.8 -15.25 -6.8499999
10.8 -15.2 -6.842
10.8 -15.15 -6.829
10.8 -15.05 -6.8449998
10.8 -15 -6.8249998
10.8 -14.95 -6.8319998
10.8 -14.9 -6.8049998
10.8 -14.85 -6.802
10.8 -14.8 -6.7789998
10.8 -14.75 -6.8179998
10.8 -14.7 -6.7199998
10.8 -14.65 -6.776
10.8 -14.6 -6.7410002
10.8 -14.55 -6.7600002
10.8 -14.5 -6.7410002
10.85 -17.65 -7.0170002
10.85 -17.6 -6.9889998
10.85 -17.549999 -7.0040002
10.85 -17.5 -7.0079999
10.85 -17.450001 -7.0009999
10.85 -17.4 -6.9879999
10.85 -17.35 -7.0029998
10.85 -17.299999 -7.0100002
10.85 -17.25 -6.98
10.85 -17.200001 -6.9850001
10.85 -17.15 -7.006
10.85 -17.1 -6.9770002
10.85 -17.049999 -6.9920001
10.85 -17 -6.967
10.85 -16.950001 -6.973
10.85 -16.9 -6.9759998
10.85 -16.85 -6.9559999
10.85 -16.799999 -6.9619999
10.85 -16.75 -6.9569998
10.85 -16.700001 -6.9619999
10.85 -16.65 -6.9679999
10.85 -16.6 -6.9580002
10.85 -16.549999 -6.9400001
10.85 -16.5 -6.9569998
10.85 -16.450001 -6.948
10.85 -16.4 -6.9689999
10.85 -16.35 -6.9559999
10.85 -16.299999 -6.9439998
10.85 -16.25 -6.9310002
10.85 -16.200001 -6.9320002
10.85 -16.15 -6.9330001
10.85 -16.1 -6.9419999
10.85 -16.049999 -6.941
10.85 -16 -6.9310002
10.85 -15.95 -6.9320002
10.85 -15.9 -6.9169998
10.85 -15.85 -6.9239998
10.85 -15.8 -6.9299998
10.85 -15.75 -6.9390001
10.85 -15.7 -6.9159999
10.85 -15.65 -6.9109998
10.85 -15.6 -6.927
10.85 -15.55 -6.8759999
10.85 -15.5 -6.9250002
10.85 -15.45 -6.888
10.85 -15.4 -6.8590002
10.85 -15.35 -6.8670001
10.85 -15.3 -6.8930001
10.85 -15.25 -6.8540001
10.85 -15.15 -6.8509998
10.85 -15.05 -6.8449998
10.85 -15 -6.8239999
10.85 -14.95 -6.8379998
10.85 -14.9 -6.7930002
10.85 -14.85 -6.8070002
10.85 -14.8 -6.8109999
10.85 -14.75 -6.8210001
10.85 -14.7 -6.6919999
10.85 -14.65 -6.7859998
10.85 -14.6 -6.7729998
10.85 -14.55 -6.7719998
10.85 -14.5 -6.7470002
10.9 -17.65 -7.0089998
10.9 -17.6 -6.9879999
10.9 -17.549999 -6.9910002
10.9 -17.5 -7.0019999
10.9 -17.450001 -6.987
10.9 -17.4 -6.9819999
10.9 -17.35 -7.0009999
10.9 -17.299999 -7.0089998
10.9 -17.25 -6.9790001
10.9 -17.200001 -6.9850001
10.9 -17.15 -7.0029998
10.9 -17.1 -6.98
10.9 -17.049999 -7.0019999
10.9 -17 -6.9720001
10.9 -16.950001 -6.973
10.9 -16.9 -6.9949999
10.9 -16.85 -6.9559999
10.9 -16.799999 -6.9710002
10.9 -16.75 -6.96
10.9 -16.700001 -6.9619999
10.9 -16.65 -6.9699998
10.9 -16.6 -6.967
10.9 -16.549999 -6.9390001
10.9 -16.5 -6.9569998
10.9 -16.450001 -6.947
10.9 -16.4 -6.9770002
10.9 -16.35 -6.9549999
10.9 -16.299999 -6.9549999
10.9 -16.25 -6.9419999
10.9 -16.200001 -6.9369998
10.9 -16.15 -6.947
10.9 -16.1 -6.9619999
10.9 -16.049999 -6.9429998
10.9 -16 -6.9359999
10.9 -15.95 -6.9330001
10.9 -15.9 -6.9200001
10.9 -15.85 -6.9239998
10.9 -15.8 -6.9289999
10.9 -15.75 -6.9380002
10.9 -15.7 -6.9039998
10.9 -15.65 -6.914
10.9 -15.6 -6.9260001
10.9 -15.55 -6.8990002
10.9 -15.5 -6.9250002
10.9 -15.45 -6.9120002
10.9 -15.35 -6.8930001
10.9 -15.3 -6.9239998
10.9 -15.25 -6.8850002
10.9 -15.2 -6.9070001
10.9 -15.15 -6.8540001
10.9 -15.05 -6.8559999
10.9 -15 -6.8179998
10.9 -14.95 -6.8720002
10.9 -14.9 -6.7919998
10.9 -14.85 -6.816
10.9 -14.8 -6.8099999
10.9 -14.75 -6.8309999
10.9 -14.7 -6.7119999
10.9 -14.65 -6.7919998
10.9 -14.6 -6.7820001
10.9 -14.55 -6.7719998
10.9 -14.5 -6.77
10.95 -17.65 -7.0050001
10.95 -17.6 -6.9879999
10.95 -17.549999 -6.9860001
10.95 -17.5 -6.9910002
10.95 -17.450001 -6.9840002
10.95 -17.4 -6.973
10.95 -17.35 -6.994
10.95 -17.299999 -7.0050001
10.95 -17.25 -6.9770002
10.95 -17.200001 -6.9840002
10.95 -17.15 -7.0009999
10.95 -17.1 -6.9840002
10.95 -17.049999 -7.0120001
10.95 -17 -6.9780002
10.95 -16.950001 -6.9679999
10.95 -16.9 -6.994
10.95 -16.85 -6.9520001
10.95 -16.799999 -6.9790001
10.95 -16.75 -6.967
10.95 -16.700001 -6.961
10.95 -16.65 -6.9699998
10.95 -16.6 -6.973
10.95 -16.549999 -6.9390001
10.95 -16.5 -6.9629998
10.95 -16.450001 -6.9460001
10.95 -16.4 -6.9759998
10.95 -16.35 -6.954
10.95 -16.299999 -6.9689999
10.95 -16.25 -6.941
10.95 -16.200001 -6.9510002
10.95 -16.15 -6.948
10.95 -16.1 -6.9650002
10.95 -16.049999 -6.9499998
10.95 -16 -6.9390001
10.95 -15.95 -6.934
10.95 -15.9 -6.9219999
10.95 -15.85 -6.927
10.95 -15.8 -6.9369998
10.95 -15.75 -6.9369998
10.95 -15.7 -6.9029999
10.95 -15.65 -6.9200001
10.95 -15.6 -6.9250002
10.95 -15.55 -6.902
10.95 -15.5 -6.9219999
10.95 -15.45 -6.9159999
10.95 -15.35 -6.8930001
10.95 -15.25 -6.8920002
10.95 -15.2 -6.934
10.95 -15.15 -6.869
10.95 -15.05 -6.8559999
10.95 -14.95 -6.8870001
10.95 -14.85 -6.8280001
10.95 -14.8 -6.809
10.95 -14.75 -6.8299999
10.95 -14.65 -6.7940001
10.95 -14.6 -6.79
10.95 -14.55 -6.7839999
10.95 -14.5 -6.809
11 -17.65 -7.0050001
11 -17.6 -6.9889998
11 -17.549999 -6.98
11 -17.5 -6.9879999
11 -17.450001 -6.9819999
11 -17.4 -6.973
11 -17.35 -6.9850001
11 -17.299999 -6.9970002
11 -17.25 -6.9759998
11 -17.200001 -6.9829998
11 -17.15 -6.9959998
11 -17.1 -6.9829998
11 -17.049999 -7.0040002
11 -17 -6.9780002
11 -16.950001 -6.9619999
11 -16.9 -6.9850001
11 -16.85 -6.9499998
